-9.71787	38.6	0.2386995
-9.71787	38.7	0.235683
-9.71787	38.8	0.2290522
-9.71787	38.9	0.2145737
-9.71787	39	0.1898856
-9.61787	38.5	0.2472178
-9.61787	38.6	0.2384912
-9.61787	38.7	0.2369526
-9.61787	38.8	0.2210477
-9.61787	38.9	0.2151269
-9.61787	39	0.1931725
-9.61787	39.1	0.1864113
-9.61787	39.2	0.1743607
-9.61787	39.3	0.1707812
-9.61787	39.4	0.1490632
-9.61787	39.5	0.1444664
-9.51787	38.5	0.2442399
-9.51787	38.6	0.2389928
-9.51787	38.7	0.2317045
-9.51787	38.8	0.223448
-9.51787	38.9	0.2109418
-9.51787	39	0.2003396
-9.51787	39.1	0.1908296
-9.51787	39.2	0.1780379
-9.51787	39.3	0.1686786
-9.51787	39.4	0.1569292
-9.51787	39.5	0.1500408
-9.51787	39.6	0.1437495
-9.41787	38.2	0.2660956
-9.41787	38.3	0.2584206
-9.41787	38.4	0.2574835
-9.41787	38.5	0.2445955
-9.41787	38.6	0.2428624
-9.41787	38.7	0.2372067
-9.41787	38.8	0.227663
-9.41787	38.9	0.217965
-9.41787	39	0.2075482
-9.41787	39.1	0.1951283
-9.41787	39.2	0.1888961
-9.41787	39.3	0.1822397
-9.41787	39.4	0.1698685
-9.41787	39.5	0.1631226
-9.41787	39.6	0.1506052
-9.31787	38.2	0.265512
-9.31787	38.3	0.2578183
-9.31787	38.4	0.2513821
-9.31787	38.5	0.2447817
-9.31787	38.6	0.2481494
-9.31787	38.7	0.2343045
-9.31787	38.8	0.2377774
-9.31787	38.9	0.2261879
-9.31787	39	0.2209038
-9.31787	39.1	0.2159082
-9.31787	39.2	0.2083307
-9.31787	39.3	0.1962982
-9.31787	39.4	0.182291
-9.31787	39.5	0.1710565
-9.31787	39.6	0.1568131
-9.31787	39.7	0.1424724
-9.31787	39.8	0.1363993
-9.21787	36.9	0.36761
-9.21787	37	0.2981954
-9.21787	37.1	0.3441049
-9.21787	37.2	0.3329311
-9.21787	38.2	0.2558856
-9.21787	38.3	0.2571256
-9.21787	38.4	0.2454737
-9.21787	38.5	0.2471082
-9.21787	38.6	0.2426103
-9.21787	38.7	0.2432622
-9.21787	38.8	0.2428181
-9.21787	38.9	0.2505148
-9.21787	39	0.2450717
-9.21787	39.1	0.230739
-9.21787	39.2	0.2200965
-9.21787	39.3	0.2041602
-9.21787	39.4	0.1879148
-9.21787	39.5	0.1753
-9.21787	39.6	0.1603802
-9.21787	39.7	0.1445546
-9.21787	39.8	0.1377095
-9.21787	39.9	0.1306983
-9.21787	40	0.1259411
-9.11787	36.9	0.3100038
-9.11787	37	0.345595
-9.11787	37.1	0.3338137
-9.11787	37.2	0.3262627
-9.11787	37.3	0.3181919
-9.11787	37.4	0.304714
-9.11787	37.8	0.2769737
-9.11787	37.9	0.2658755
-9.11787	38	0.2595587
-9.11787	38.1	0.2600721
-9.11787	38.2	0.2549277
-9.11787	38.3	0.2507515
-9.11787	38.4	0.2459397
-9.11787	38.5	0.250463
-9.11787	38.6	0.2423219
-9.11787	38.7	0.2482687
-9.11787	38.8	0.266582
-9.11787	38.9	0.2693778
-9.11787	39	0.2625798
-9.11787	39.1	0.2469475
-9.11787	39.2	0.2275108
-9.11787	39.3	0.2148344
-9.11787	39.4	0.200784
-9.11787	39.5	0.181662
-9.11787	39.6	0.1624273
-9.11787	39.7	0.1464211
-9.11787	39.8	0.1391352
-9.11787	39.9	0.1321172
-9.11787	40	0.1284256
-9.11787	40.1	0.1244453
-9.11787	40.2	0.1219366
-9.11787	40.3	0.1192923
-9.11787	40.4	0.1171061
-9.11787	41.6	0.08205687
-9.11787	41.7	0.08079747
-9.11787	41.8	0.07987876
-9.11787	41.9	0.07939697
-9.11787	42	0.07897552
-9.11787	42.1	0.07976206
-9.11787	42.2	0.08029512
-9.01787	36.9	0.2872464
-9.01787	37	0.3359084
-9.01787	37.1	0.3270144
-9.01787	37.2	0.320822
-9.01787	37.3	0.3072228
-9.01787	37.4	0.3015613
-9.01787	37.5	0.2920423
-9.01787	37.6	0.2875432
-9.01787	37.7	0.2779107
-9.01787	37.8	0.2661178
-9.01787	37.9	0.2597999
-9.01787	38	0.2584529
-9.01787	38.1	0.2588665
-9.01787	38.2	0.2479329
-9.01787	38.3	0.2495835
-9.01787	38.4	0.2474445
-9.01787	38.5	0.2402266
-9.01787	38.6	0.2433674
-9.01787	38.7	0.2594888
-9.01787	38.8	0.273286
-9.01787	38.9	0.2991462
-9.01787	39	0.2965101
-9.01787	39.1	0.2719501
-9.01787	39.2	0.241657
-9.01787	39.3	0.2244684
-9.01787	39.4	0.2074643
-9.01787	39.5	0.19173
-9.01787	39.6	0.16528
-9.01787	39.7	0.1517819
-9.01787	39.8	0.142278
-9.01787	39.9	0.1341526
-9.01787	40	0.1286924
-9.01787	40.1	0.1256458
-9.01787	40.2	0.1226944
-9.01787	40.3	0.1200322
-9.01787	40.4	0.1181095
-9.01787	40.5	0.1168116
-9.01787	40.6	0.1151997
-9.01787	40.7	0.11346
-9.01787	41.2	0.1025852
-9.01787	41.3	0.09789266
-9.01787	41.4	0.0939914
-9.01787	41.5	0.0889384
-9.01787	41.6	0.08469876
-9.01787	41.7	0.08123859
-9.01787	41.8	0.07958546
-9.01787	41.9	0.07984154
-9.01787	42	0.08028857
-9.01787	42.1	0.08052527
-9.01787	42.2	0.08118331
-8.91787	36.9	0.2742981
-8.91787	37	0.3293251
-8.91787	37.1	0.3218687
-8.91787	37.2	0.312318
-8.91787	37.3	0.3033614
-8.91787	37.4	0.2939325
-8.91787	37.5	0.2898559
-8.91787	37.6	0.2852983
-8.91787	37.7	0.2672129
-8.91787	37.8	0.2649329
-8.91787	37.9	0.2572901
-8.91787	38	0.2551733
-8.91787	38.1	0.2476675
-8.91787	38.2	0.2462897
-8.91787	38.3	0.2442196
-8.91787	38.4	0.2453814
-8.91787	38.5	0.2362376
-8.91787	38.6	0.2423893
-8.91787	38.7	0.255427
-8.91787	38.8	0.2743446
-8.91787	38.9	0.3058891
-8.91787	39	0.3414879
-8.91787	39.1	0.2946068
-8.91787	39.2	0.2569866
-8.91787	39.3	0.2361189
-8.91787	39.4	0.2160874
-8.91787	39.5	0.1957821
-8.91787	39.6	0.1766014
-8.91787	39.7	0.1607574
-8.91787	39.8	0.1478173
-8.91787	39.9	0.1394465
-8.91787	40	0.1325083
-8.91787	40.1	0.1273703
-8.91787	40.2	0.1232693
-8.91787	40.3	0.1200907
-8.91787	40.4	0.1176637
-8.91787	40.5	0.1161259
-8.91787	40.6	0.1140025
-8.91787	40.7	0.1123269
-8.91787	40.8	0.1104342
-8.91787	40.9	0.1096035
-8.91787	41	0.1074405
-8.91787	41.1	0.1050276
-8.91787	41.2	0.1039077
-8.91787	41.3	0.1028325
-8.91787	41.4	0.09782791
-8.91787	41.5	0.09274034
-8.91787	41.6	0.08774485
-8.91787	41.7	0.08405887
-8.91787	41.8	0.08046225
-8.91787	41.9	0.08109351
-8.91787	42	0.08104384
-8.91787	42.1	0.0814975
-8.91787	42.2	0.0821652
-8.81787	36.9	0.2673954
-8.81787	37	0.3180796
-8.81787	37.1	0.3316673
-8.81787	37.2	0.3179087
-8.81787	37.3	0.303981
-8.81787	37.4	0.2937338
-8.81787	37.5	0.286476
-8.81787	37.6	0.2692449
-8.81787	37.7	0.2651588
-8.81787	37.8	0.2623196
-8.81787	37.9	0.2561852
-8.81787	38	0.2445242
-8.81787	38.1	0.2415575
-8.81787	38.2	0.241939
-8.81787	38.3	0.2394787
-8.81787	38.4	0.2335078
-8.81787	38.5	0.2306049
-8.81787	38.6	0.2378367
-8.81787	38.7	0.2465904
-8.81787	38.8	0.2635804
-8.81787	38.9	0.2912252
-8.81787	39	0.3338294
-8.81787	39.1	0.3290972
-8.81787	39.2	0.2810374
-8.81787	39.3	0.2510622
-8.81787	39.4	0.2230924
-8.81787	39.5	0.1976957
-8.81787	39.6	0.1811186
-8.81787	39.7	0.1665776
-8.81787	39.8	0.1573781
-8.81787	39.9	0.1454458
-8.81787	40	0.138297
-8.81787	40.1	0.1329354
-8.81787	40.2	0.1289067
-8.81787	40.3	0.1255729
-8.81787	40.4	0.121859
-8.81787	40.5	0.117937
-8.81787	40.6	0.1141736
-8.81787	40.7	0.1121333
-8.81787	40.8	0.1103397
-8.81787	40.9	0.1085457
-8.81787	41	0.1064621
-8.81787	41.1	0.1056973
-8.81787	41.2	0.1052279
-8.81787	41.3	0.1049583
-8.81787	41.4	0.1033706
-8.81787	41.5	0.09677417
-8.81787	41.6	0.09143368
-8.81787	41.7	0.08753432
-8.81787	41.8	0.08345719
-8.81787	41.9	0.08132807
-8.81787	42	0.08185964
-8.81787	42.1	0.082377
-8.81787	42.2	0.08282577
-8.71787	36.9	0.2620261
-8.71787	37	0.3132551
-8.71787	37.1	0.3154091
-8.71787	37.2	0.3143578
-8.71787	37.3	0.3023878
-8.71787	37.4	0.2884358
-8.71787	37.5	0.2768452
-8.71787	37.6	0.2672221
-8.71787	37.7	0.2635816
-8.71787	37.8	0.2555783
-8.71787	37.9	0.2509358
-8.71787	38	0.2386237
-8.71787	38.1	0.2387678
-8.71787	38.2	0.2410018
-8.71787	38.3	0.2377886
-8.71787	38.4	0.2218249
-8.71787	38.5	0.2280902
-8.71787	38.6	0.2329465
-8.71787	38.7	0.2340051
-8.71787	38.8	0.24709
-8.71787	38.9	0.2719104
-8.71787	39	0.31766
-8.71787	39.1	0.3827383
-8.71787	39.2	0.3661911
-8.71787	39.3	0.2766635
-8.71787	39.4	0.2371323
-8.71787	39.5	0.2071173
-8.71787	39.6	0.1860576
-8.71787	39.7	0.1708931
-8.71787	39.8	0.1647566
-8.71787	39.9	0.153456
-8.71787	40	0.1444625
-8.71787	40.1	0.1392808
-8.71787	40.2	0.1356132
-8.71787	40.3	0.1324285
-8.71787	40.4	0.1285772
-8.71787	40.5	0.1243953
-8.71787	40.6	0.1204548
-8.71787	40.7	0.117272
-8.71787	40.8	0.1143465
-8.71787	40.9	0.1102
-8.71787	41	0.1062313
-8.71787	41.1	0.1057961
-8.71787	41.2	0.105309
-8.71787	41.3	0.1054845
-8.71787	41.4	0.1060766
-8.71787	41.5	0.1018819
-8.71787	41.6	0.09479468
-8.71787	41.7	0.08975182
-8.71787	41.8	0.08615509
-8.71787	41.9	0.08239805
-8.71787	42	0.08235172
-8.71787	42.1	0.08274961
-8.71787	42.2	0.08316452
-8.61787	36.9	0.2587799
-8.61787	37	0.3095244
-8.61787	37.1	0.3029846
-8.61787	37.2	0.3055055
-8.61787	37.3	0.2904352
-8.61787	37.4	0.2822044
-8.61787	37.5	0.2714139
-8.61787	37.6	0.2658908
-8.61787	37.7	0.2615943
-8.61787	37.8	0.2514814
-8.61787	37.9	0.2376606
-8.61787	38	0.2354668
-8.61787	38.1	0.2376813
-8.61787	38.2	0.2337486
-8.61787	38.3	0.2248353
-8.61787	38.4	0.2163021
-8.61787	38.5	0.2202323
-8.61787	38.6	0.2124803
-8.61787	38.7	0.2193936
-8.61787	38.8	0.2402761
-8.61787	38.9	0.2546515
-8.61787	39	0.2759748
-8.61787	39.1	0.3142809
-8.61787	39.2	0.3818298
-8.61787	39.3	0.3462661
-8.61787	39.4	0.2612393
-8.61787	39.5	0.2223492
-8.61787	39.6	0.1931004
-8.61787	39.7	0.1748132
-8.61787	39.8	0.1644132
-8.61787	39.9	0.1629949
-8.61787	40	0.1511537
-8.61787	40.1	0.1466012
-8.61787	40.2	0.143726
-8.61787	40.3	0.1409324
-8.61787	40.4	0.1372316
-8.61787	40.5	0.1329599
-8.61787	40.6	0.1288475
-8.61787	40.7	0.1255844
-8.61787	40.8	0.1218712
-8.61787	40.9	0.11745
-8.61787	41	0.1160537
-8.61787	41.1	0.1110772
-8.61787	41.2	0.1044964
-8.61787	41.3	0.1050224
-8.61787	41.4	0.1058774
-8.61787	41.5	0.1064187
-8.61787	41.6	0.09944338
-8.61787	41.7	0.092774
-8.61787	41.8	0.08809692
-8.61787	41.9	0.08505654
-8.61787	42	0.08255448
-8.61787	42.1	0.08288061
-8.61787	42.2	0.08220723
-8.51787	36.9	0.2564719
-8.51787	37	0.3043963
-8.51787	37.1	0.3017085
-8.51787	37.2	0.293206
-8.51787	37.3	0.2836295
-8.51787	37.4	0.2774485
-8.51787	37.5	0.2690021
-8.51787	37.6	0.2635604
-8.51787	37.7	0.2539975
-8.51787	37.8	0.2395665
-8.51787	37.9	0.2355893
-8.51787	38	0.2340405
-8.51787	38.1	0.2364013
-8.51787	38.2	0.2202595
-8.51787	38.3	0.2147902
-8.51787	38.4	0.2136256
-8.51787	38.5	0.2141918
-8.51787	38.6	0.2050216
-8.51787	38.7	0.2075093
-8.51787	38.8	0.2260876
-8.51787	38.9	0.2357774
-8.51787	39	0.2391061
-8.51787	39.1	0.2505511
-8.51787	39.2	0.280714
-8.51787	39.3	0.3577836
-8.51787	39.4	0.3004652
-8.51787	39.5	0.2366069
-8.51787	39.6	0.1973321
-8.51787	39.7	0.1765622
-8.51787	39.8	0.1668537
-8.51787	39.9	0.1633545
-8.51787	40	0.1638351
-8.51787	40.1	0.158444
-8.51787	40.2	0.1549402
-8.51787	40.3	0.1532872
-8.51787	40.4	0.1484341
-8.51787	40.5	0.1443064
-8.51787	40.6	0.1400223
-8.51787	40.7	0.1377477
-8.51787	40.8	0.1396688
-8.51787	40.9	0.138401
-8.51787	41	0.1315386
-8.51787	41.1	0.1169953
-8.51787	41.2	0.108494
-8.51787	41.3	0.1034447
-8.51787	41.4	0.1047917
-8.51787	41.5	0.1057682
-8.51787	41.6	0.1039528
-8.51787	41.7	0.09694043
-8.51787	41.8	0.09059796
-8.51787	41.9	0.08637574
-8.51787	42	0.08353247
-8.51787	42.1	0.08225475
-8.51787	42.2	0.08131596
-8.41787	36.9	0.2536592
-8.41787	37	0.2979134
-8.41787	37.1	0.2953442
-8.41787	37.2	0.292263
-8.41787	37.3	0.2863233
-8.41787	37.4	0.2758332
-8.41787	37.5	0.2645795
-8.41787	37.6	0.2564811
-8.41787	37.7	0.2467975
-8.41787	37.8	0.2384548
-8.41787	37.9	0.2347639
-8.41787	38	0.2333123
-8.41787	38.1	0.2163015
-8.41787	38.2	0.2107909
-8.41787	38.3	0.2118368
-8.41787	38.4	0.2087969
-8.41787	38.5	0.2011888
-8.41787	38.6	0.1921695
-8.41787	38.7	0.1981962
-8.41787	38.8	0.2070415
-8.41787	38.9	0.2164683
-8.41787	39	0.2116604
-8.41787	39.1	0.2185987
-8.41787	39.2	0.2387992
-8.41787	39.3	0.2593531
-8.41787	39.4	0.2654866
-8.41787	39.5	0.230232
-8.41787	39.6	0.194729
-8.41787	39.7	0.1753168
-8.41787	39.8	0.1668855
-8.41787	39.9	0.1624504
-8.41787	40	0.1679068
-8.41787	40.1	0.1809082
-8.41787	40.2	0.1920028
-8.41787	40.3	0.2000797
-8.41787	40.4	0.1899768
-8.41787	40.5	0.1788966
-8.41787	40.6	0.1704025
-8.41787	40.7	0.1766107
-8.41787	40.8	0.1811923
-8.41787	40.9	0.1637203
-8.41787	41	0.1398177
-8.41787	41.1	0.1223112
-8.41787	41.2	0.1149151
-8.41787	41.3	0.1073341
-8.41787	41.4	0.1023382
-8.41787	41.5	0.1038373
-8.41787	41.6	0.1048978
-8.41787	41.7	0.1015235
-8.41787	41.8	0.09443443
-8.41787	41.9	0.088814
-8.41787	42	0.08511789
-8.41787	42.1	0.08181555
-8.41787	42.2	0.08068974
-8.31787	36.9	0.2540257
-8.31787	37	0.2906161
-8.31787	37.1	0.3038216
-8.31787	37.2	0.3027898
-8.31787	37.3	0.281279
-8.31787	37.4	0.2681548
-8.31787	37.5	0.2595255
-8.31787	37.6	0.2483095
-8.31787	37.7	0.2397242
-8.31787	37.8	0.2366796
-8.31787	37.9	0.233793
-8.31787	38	0.2257855
-8.31787	38.1	0.2060526
-8.31787	38.2	0.2065767
-8.31787	38.3	0.2043325
-8.31787	38.4	0.2043386
-8.31787	38.5	0.1848414
-8.31787	38.6	0.1851125
-8.31787	38.7	0.1869141
-8.31787	38.8	0.1907859
-8.31787	38.9	0.1914298
-8.31787	39	0.1931052
-8.31787	39.1	0.1980865
-8.31787	39.2	0.2055015
-8.31787	39.3	0.2164014
-8.31787	39.4	0.2233305
-8.31787	39.5	0.2068412
-8.31787	39.6	0.1845663
-8.31787	39.7	0.1709163
-8.31787	39.8	0.1643802
-8.31787	39.9	0.1619725
-8.31787	40	0.1627496
-8.31787	40.1	0.181441
-8.31787	40.2	0.2072315
-8.31787	40.3	0.2251448
-8.31787	40.4	0.2285906
-8.31787	40.5	0.2250304
-8.31787	40.6	0.2181647
-8.31787	40.7	0.2084131
-8.31787	40.8	0.187392
-8.31787	40.9	0.1556898
-8.31787	41	0.139521
-8.31787	41.1	0.1302384
-8.31787	41.2	0.1219463
-8.31787	41.3	0.1138116
-8.31787	41.4	0.1057842
-8.31787	41.5	0.1005383
-8.31787	41.6	0.1023612
-8.31787	41.7	0.1039796
-8.31787	41.8	0.09884332
-8.31787	41.9	0.09213649
-8.31787	42	0.08724263
-8.31787	42.1	0.08325793
-8.31787	42.2	0.08092538
-8.21787	36.9	0.2561469
-8.21787	37	0.2962873
-8.21787	37.1	0.3159278
-8.21787	37.2	0.3002165
-8.21787	37.3	0.27287
-8.21787	37.4	0.2636854
-8.21787	37.5	0.2553155
-8.21787	37.6	0.2408416
-8.21787	37.7	0.2384945
-8.21787	37.8	0.2356608
-8.21787	37.9	0.2262645
-8.21787	38	0.2022228
-8.21787	38.1	0.2013547
-8.21787	38.2	0.2011654
-8.21787	38.3	0.1982786
-8.21787	38.4	0.1898828
-8.21787	38.5	0.1755745
-8.21787	38.6	0.1775691
-8.21787	38.7	0.1707814
-8.21787	38.8	0.1766416
-8.21787	38.9	0.1757981
-8.21787	39	0.1785045
-8.21787	39.1	0.1824539
-8.21787	39.2	0.18615
-8.21787	39.3	0.1875976
-8.21787	39.4	0.1915146
-8.21787	39.5	0.1849928
-8.21787	39.6	0.1723767
-8.21787	39.7	0.1641547
-8.21787	39.8	0.1597174
-8.21787	39.9	0.1591497
-8.21787	40	0.1612994
-8.21787	40.1	0.1679463
-8.21787	40.2	0.175025
-8.21787	40.3	0.1845734
-8.21787	40.4	0.2039948
-8.21787	40.5	0.2149242
-8.21787	40.6	0.2121517
-8.21787	40.7	0.1905873
-8.21787	40.8	0.17039
-8.21787	40.9	0.1605547
-8.21787	41	0.1494985
-8.21787	41.1	0.1391409
-8.21787	41.2	0.1295863
-8.21787	41.3	0.1209027
-8.21787	41.4	0.1121447
-8.21787	41.5	0.1040029
-8.21787	41.6	0.09889089
-8.21787	41.7	0.1010542
-8.21787	41.8	0.1031895
-8.21787	41.9	0.09635666
-8.21787	42	0.09011666
-8.21787	42.1	0.08561203
-8.21787	42.2	0.0821701
-8.11787	36.9	0.2580264
-8.11787	37	0.2456119
-8.11787	37.1	0.2974746
-8.11787	37.2	0.2787971
-8.11787	37.3	0.2677701
-8.11787	37.4	0.25832
-8.11787	37.5	0.2440934
-8.11787	37.6	0.2395116
-8.11787	37.7	0.2355884
-8.11787	37.8	0.2266777
-8.11787	37.9	0.2026956
-8.11787	38	0.2005924
-8.11787	38.1	0.1993373
-8.11787	38.2	0.1946042
-8.11787	38.3	0.1863406
-8.11787	38.4	0.1686976
-8.11787	38.5	0.1690936
-8.11787	38.6	0.1694302
-8.11787	38.7	0.1619291
-8.11787	38.8	0.1615609
-8.11787	38.9	0.166037
-8.11787	39	0.1692432
-8.11787	39.1	0.1696717
-8.11787	39.2	0.1669413
-8.11787	39.3	0.1693809
-8.11787	39.4	0.1708838
-8.11787	39.5	0.1674474
-8.11787	39.6	0.1615914
-8.11787	39.7	0.1565049
-8.11787	39.8	0.1540073
-8.11787	39.9	0.1547235
-8.11787	40	0.1579753
-8.11787	40.1	0.1642178
-8.11787	40.2	0.1720458
-8.11787	40.3	0.1764816
-8.11787	40.4	0.1799891
-8.11787	40.5	0.1860565
-8.11787	40.6	0.2025851
-8.11787	40.7	0.1941745
-8.11787	40.8	0.1794756
-8.11787	40.9	0.1708404
-8.11787	41	0.1609935
-8.11787	41.1	0.1500615
-8.11787	41.2	0.13939
-8.11787	41.3	0.1289405
-8.11787	41.4	0.119464
-8.11787	41.5	0.1103899
-8.11787	41.6	0.1020723
-8.11787	41.7	0.09795976
-8.11787	41.8	0.1006668
-8.11787	41.9	0.1009167
-8.11787	42	0.09411424
-8.11787	42.1	0.08810044
-8.11787	42.2	0.08413538
-8.01787	36.9	0.259034
-8.01787	37	0.2425532
-8.01787	37.1	0.2916746
-8.01787	37.2	0.2752678
-8.01787	37.3	0.2610469
-8.01787	37.4	0.2512728
-8.01787	37.5	0.2406679
-8.01787	37.6	0.2375518
-8.01787	37.7	0.2285368
-8.01787	37.8	0.2140738
-8.01787	37.9	0.2019584
-8.01787	38	0.1995164
-8.01787	38.1	0.1979219
-8.01787	38.2	0.189625
-8.01787	38.3	0.1663764
-8.01787	38.4	0.165717
-8.01787	38.5	0.1648662
-8.01787	38.6	0.1544133
-8.01787	38.7	0.1533241
-8.01787	38.8	0.1514884
-8.01787	38.9	0.1544495
-8.01787	39	0.1582829
-8.01787	39.1	0.1535308
-8.01787	39.2	0.1559418
-8.01787	39.3	0.1567465
-8.01787	39.4	0.1564775
-8.01787	39.5	0.1549947
-8.01787	39.6	0.1513695
-8.01787	39.7	0.1487477
-8.01787	39.8	0.1478867
-8.01787	39.9	0.1491882
-8.01787	40	0.1532437
-8.01787	40.1	0.1593596
-8.01787	40.2	0.1675612
-8.01787	40.3	0.172883
-8.01787	40.4	0.1754667
-8.01787	40.5	0.1778094
-8.01787	40.6	0.1817211
-8.01787	40.7	0.1871448
-8.01787	40.8	0.1887214
-8.01787	40.9	0.1805749
-8.01787	41	0.1718673
-8.01787	41.1	0.1628016
-8.01787	41.2	0.1515574
-8.01787	41.3	0.1393448
-8.01787	41.4	0.127749
-8.01787	41.5	0.1177214
-8.01787	41.6	0.1080957
-8.01787	41.7	0.0996735
-8.01787	41.8	0.09742866
-8.01787	41.9	0.09997924
-8.01787	42	0.09838434
-8.01787	42.1	0.09165194
-8.01787	42.2	0.08575122
-7.91787	36.9	0.2597978
-7.91787	37	0.2415524
-7.91787	37.1	0.2790314
-7.91787	37.2	0.2689807
-7.91787	37.3	0.256169
-7.91787	37.4	0.250176
-7.91787	37.5	0.239622
-7.91787	37.6	0.2297831
-7.91787	37.7	0.2166971
-7.91787	37.8	0.2045251
-7.91787	37.9	0.2014823
-7.91787	38	0.195775
-7.91787	38.1	0.1884524
-7.91787	38.2	0.179603
-7.91787	38.3	0.1651618
-7.91787	38.4	0.1639778
-7.91787	38.5	0.1623072
-7.91787	38.6	0.1514343
-7.91787	38.7	0.1428892
-7.91787	38.8	0.1433024
-7.91787	38.9	0.1452857
-7.91787	39	0.1482234
-7.91787	39.1	0.1452995
-7.91787	39.2	0.1467612
-7.91787	39.3	0.1440999
-7.91787	39.4	0.144958
-7.91787	39.5	0.1444168
-7.91787	39.6	0.1426249
-7.91787	39.7	0.1414536
-7.91787	39.8	0.1415175
-7.91787	39.9	0.143616
-7.91787	40	0.1477997
-7.91787	40.1	0.1540654
-7.91787	40.2	0.1623121
-7.91787	40.3	0.1690054
-7.91787	40.4	0.17132
-7.91787	40.5	0.1723221
-7.91787	40.6	0.1748247
-7.91787	40.7	0.17797
-7.91787	40.8	0.1805518
-7.91787	40.9	0.1807102
-7.91787	41	0.1808079
-7.91787	41.1	0.1739235
-7.91787	41.2	0.1642673
-7.91787	41.3	0.1518255
-7.91787	41.4	0.1382132
-7.91787	41.5	0.1257347
-7.91787	41.6	0.1152155
-7.91787	41.7	0.1050084
-7.91787	41.8	0.09662159
-7.91787	41.9	0.09651261
-7.91787	42	0.09854508
-7.91787	42.1	0.09542975
-7.91787	42.2	0.08866282
-7.81787	36.9	0.2610484
-7.81787	37	0.2419591
-7.81787	37.1	0.274185
-7.81787	37.2	0.2635294
-7.81787	37.3	0.2544781
-7.81787	37.4	0.2362148
-7.81787	37.5	0.231806
-7.81787	37.6	0.2190483
-7.81787	37.7	0.2064967
-7.81787	37.8	0.2031447
-7.81787	37.9	0.1960729
-7.81787	38	0.1904447
-7.81787	38.1	0.178579
-7.81787	38.2	0.1643275
-7.81787	38.3	0.163758
-7.81787	38.4	0.1623192
-7.81787	38.5	0.1482202
-7.81787	38.6	0.1375264
-7.81787	38.7	0.1369399
-7.81787	38.8	0.1361585
-7.81787	38.9	0.1371591
-7.81787	39	0.1368262
-7.81787	39.1	0.1379462
-7.81787	39.2	0.1362182
-7.81787	39.3	0.1350377
-7.81787	39.4	0.1355517
-7.81787	39.5	0.13569
-7.81787	39.6	0.134867
-7.81787	39.7	0.1344551
-7.81787	39.8	0.1354083
-7.81787	39.9	0.1375882
-7.81787	40	0.1416174
-7.81787	40.1	0.1479196
-7.81787	40.2	0.1570491
-7.81787	40.3	0.1642777
-7.81787	40.4	0.1678488
-7.81787	40.5	0.1685132
-7.81787	40.6	0.1698295
-7.81787	40.7	0.1717218
-7.81787	40.8	0.1735152
-7.81787	40.9	0.1744787
-7.81787	41	0.1752952
-7.81787	41.1	0.1746995
-7.81787	41.2	0.1732842
-7.81787	41.3	0.1631815
-7.81787	41.4	0.1499923
-7.81787	41.5	0.135389
-7.81787	41.6	0.1223268
-7.81787	41.7	0.1110306
-7.81787	41.8	0.1010551
-7.81787	41.9	0.09417661
-7.81787	42	0.0945498
-7.81787	42.1	0.09697584
-7.81787	42.2	0.09176176
-7.71787	36.9	0.2624307
-7.71787	37	0.2411742
-7.71787	37.1	0.2683439
-7.71787	37.2	0.2486401
-7.71787	37.3	0.2421843
-7.71787	37.4	0.2266723
-7.71787	37.5	0.2202801
-7.71787	37.6	0.2073598
-7.71787	37.7	0.2011264
-7.71787	37.8	0.1976447
-7.71787	37.9	0.1925677
-7.71787	38	0.1772496
-7.71787	38.1	0.1618817
-7.71787	38.2	0.1625275
-7.71787	38.3	0.1611394
-7.71787	38.4	0.1583385
-7.71787	38.5	0.1328004
-7.71787	38.6	0.1317645
-7.71787	38.7	0.1296014
-7.71787	38.8	0.129838
-7.71787	38.9	0.1290518
-7.71787	39	0.1296671
-7.71787	39.1	0.1305368
-7.71787	39.2	0.1266202
-7.71787	39.3	0.1272033
-7.71787	39.4	0.1277528
-7.71787	39.5	0.1277965
-7.71787	39.6	0.127562
-7.71787	39.7	0.1281289
-7.71787	39.8	0.1294487
-7.71787	39.9	0.1312333
-7.71787	40	0.1351049
-7.71787	40.1	0.1412375
-7.71787	40.2	0.1507192
-7.71787	40.3	0.1589459
-7.71787	40.4	0.164331
-7.71787	40.5	0.1664311
-7.71787	40.6	0.1671017
-7.71787	40.7	0.1677687
-7.71787	40.8	0.1681676
-7.71787	40.9	0.1683397
-7.71787	41	0.1689294
-7.71787	41.1	0.1697259
-7.71787	41.2	0.171037
-7.71787	41.3	0.1689843
-7.71787	41.4	0.1623963
-7.71787	41.5	0.1453503
-7.71787	41.6	0.1303285
-7.71787	41.7	0.1172252
-7.71787	41.8	0.1058585
-7.71787	41.9	0.09688246
-7.71787	42	0.09139163
-7.71787	42.1	0.09260505
-7.71787	42.2	0.09461254
-7.61787	36.9	0.263746
-7.61787	37	0.2413007
-7.61787	37.1	0.2261487
-7.61787	37.2	0.2418429
-7.61787	37.3	0.2319283
-7.61787	37.4	0.2213905
-7.61787	37.5	0.2059215
-7.61787	37.6	0.2022897
-7.61787	37.7	0.1962605
-7.61787	37.8	0.1934252
-7.61787	37.9	0.1857385
-7.61787	38	0.1629982
-7.61787	38.1	0.1613592
-7.61787	38.2	0.1600093
-7.61787	38.3	0.1592172
-7.61787	38.4	0.1313502
-7.61787	38.5	0.1275378
-7.61787	38.6	0.125982
-7.61787	38.7	0.1256931
-7.61787	38.8	0.1221136
-7.61787	38.9	0.1228431
-7.61787	39	0.1240567
-7.61787	39.1	0.1220731
-7.61787	39.2	0.1202831
-7.61787	39.3	0.1207393
-7.61787	39.4	0.1211874
-7.61787	39.5	0.1215135
-7.61787	39.6	0.1215563
-7.61787	39.7	0.1222967
-7.61787	39.8	0.1237852
-7.61787	39.9	0.1260154
-7.61787	40	0.1290772
-7.61787	40.1	0.1346686
-7.61787	40.2	0.1432843
-7.61787	40.3	0.1526499
-7.61787	40.4	0.1594764
-7.61787	40.5	0.1642018
-7.61787	40.6	0.1660059
-7.61787	40.7	0.1663141
-7.61787	40.8	0.1653169
-7.61787	40.9	0.1640132
-7.61787	41	0.1635267
-7.61787	41.1	0.164372
-7.61787	41.2	0.1663089
-7.61787	41.3	0.1665065
-7.61787	41.4	0.1623798
-7.61787	41.5	0.1561351
-7.61787	41.6	0.1375888
-7.61787	41.7	0.1228909
-7.61787	41.8	0.1103949
-7.61787	41.9	0.1004823
-7.61787	42	0.09237207
-7.61787	42.1	0.08875161
-7.61787	42.2	0.09109885
-7.51787	36.9	0.2642581
-7.51787	37	0.2419836
-7.51787	37.1	0.2240684
-7.51787	37.2	0.2390088
-7.51787	37.3	0.2286782
-7.51787	37.4	0.2119657
-7.51787	37.5	0.2008981
-7.51787	37.6	0.1967235
-7.51787	37.7	0.1944423
-7.51787	37.8	0.1866974
-7.51787	37.9	0.1645124
-7.51787	38	0.1613552
-7.51787	38.1	0.1598056
-7.51787	38.2	0.1590995
-7.51787	38.3	0.1412171
-7.51787	38.4	0.1286066
-7.51787	38.5	0.1256845
-7.51787	38.6	0.1241367
-7.51787	38.7	0.1195376
-7.51787	38.8	0.1168869
-7.51787	38.9	0.1176052
-7.51787	39	0.1185507
-7.51787	39.1	0.1148368
-7.51787	39.2	0.1149799
-7.51787	39.3	0.1153703
-7.51787	39.4	0.1157812
-7.51787	39.5	0.1158948
-7.51787	39.6	0.1161307
-7.51787	39.7	0.1170969
-7.51787	39.8	0.1185998
-7.51787	39.9	0.1207578
-7.51787	40	0.1232102
-7.51787	40.1	0.128169
-7.51787	40.2	0.1354881
-7.51787	40.3	0.1444433
-7.51787	40.4	0.1526665
-7.51787	40.5	0.1589479
-7.51787	40.6	0.1638164
-7.51787	40.7	0.16548
-7.51787	40.8	0.1641479
-7.51787	40.9	0.161816
-7.51787	41	0.1600705
-7.51787	41.1	0.1601501
-7.51787	41.2	0.1613348
-7.51787	41.3	0.1616834
-7.51787	41.4	0.1598184
-7.51787	41.5	0.1535496
-7.51787	41.6	0.142009
-7.51787	41.7	0.1272986
-7.51787	41.8	0.1142969
-7.51787	41.9	0.1033169
-7.51787	42	0.09464261
-7.51787	42.1	0.08726911
-7.51787	42.2	0.08700368
-7.41787	36.9	0.2633864
-7.41787	37	0.2420769
-7.41787	37.1	0.2225337
-7.41787	37.2	0.2107059
-7.41787	37.3	0.2166099
-7.41787	37.4	0.2077493
-7.41787	37.5	0.19907
-7.41787	37.6	0.1948096
-7.41787	37.7	0.1881496
-7.41787	37.8	0.1654198
-7.41787	37.9	0.1607042
-7.41787	38	0.15875
-7.41787	38.1	0.1576764
-7.41787	38.2	0.1403468
-7.41787	38.3	0.130334
-7.41787	38.4	0.1266566
-7.41787	38.5	0.1230619
-7.41787	38.6	0.1154271
-7.41787	38.7	0.1127845
-7.41787	38.8	0.1119198
-7.41787	38.9	0.1124358
-7.41787	39	0.1091801
-7.41787	39.1	0.109435
-7.41787	39.2	0.1094543
-7.41787	39.3	0.1097775
-7.41787	39.4	0.1098985
-7.41787	39.5	0.1101098
-7.41787	39.6	0.1106536
-7.41787	39.7	0.1117593
-7.41787	39.8	0.1135097
-7.41787	39.9	0.1156288
-7.41787	40	0.1181576
-7.41787	40.1	0.1218378
-7.41787	40.2	0.1277324
-7.41787	40.3	0.1349186
-7.41787	40.4	0.143296
-7.41787	40.5	0.1506007
-7.41787	40.6	0.1569605
-7.41787	40.7	0.1614331
-7.41787	40.8	0.1627119
-7.41787	40.9	0.1611315
-7.41787	41	0.1590064
-7.41787	41.1	0.1585716
-7.41787	41.2	0.1584061
-7.41787	41.3	0.1576715
-7.41787	41.4	0.1556367
-7.41787	41.5	0.1509667
-7.41787	41.6	0.1419453
-7.41787	41.7	0.1295205
-7.41787	41.8	0.1168736
-7.41787	41.9	0.1054353
-7.41787	42	0.09616027
-7.41787	42.1	0.08841857
-7.41787	42.2	0.08435439
-7.31787	36.9	0.2613148
-7.31787	37	0.2407531
-7.31787	37.1	0.2200422
-7.31787	37.2	0.2061096
-7.31787	37.3	0.214929
-7.31787	37.4	0.2063423
-7.31787	37.5	0.1973334
-7.31787	37.6	0.175888
-7.31787	37.7	0.1662404
-7.31787	37.8	0.1613094
-7.31787	37.9	0.1601302
-7.31787	38	0.154203
-7.31787	38.1	0.1401273
-7.31787	38.2	0.1286699
-7.31787	38.3	0.1275436
-7.31787	38.4	0.119983
-7.31787	38.5	0.1152998
-7.31787	38.6	0.1100839
-7.31787	38.7	0.1093042
-7.31787	38.8	0.1090516
-7.31787	38.9	0.1044817
-7.31787	39	0.1043264
-7.31787	39.1	0.1043526
-7.31787	39.2	0.1041858
-7.31787	39.3	0.1040867
-7.31787	39.4	0.1045425
-7.31787	39.5	0.104766
-7.31787	39.6	0.1052438
-7.31787	39.7	0.1063698
-7.31787	39.8	0.1078497
-7.31787	39.9	0.1100111
-7.31787	40	0.1124545
-7.31787	40.1	0.1156218
-7.31787	40.2	0.1202122
-7.31787	40.3	0.1259378
-7.31787	40.4	0.1326133
-7.31787	40.5	0.1394153
-7.31787	40.6	0.1459951
-7.31787	40.7	0.152873
-7.31787	40.8	0.1572784
-7.31787	40.9	0.158916
-7.31787	41	0.1584759
-7.31787	41.1	0.1583367
-7.31787	41.2	0.1576197
-7.31787	41.3	0.155927
-7.31787	41.4	0.152957
-7.31787	41.5	0.1479018
-7.31787	41.6	0.139683
-7.31787	41.7	0.129327
-7.31787	41.8	0.1178999
-7.31787	41.9	0.1065521
-7.31787	42	0.0968326
-7.31787	42.1	0.08895417
-7.31787	42.2	0.08251271
-7.21787	37	0.2368063
-7.21787	37.1	0.2164295
-7.21787	37.2	0.2021785
-7.21787	37.3	0.1868247
-7.21787	37.4	0.1973652
-7.21787	37.5	0.1798023
-7.21787	37.6	0.1671256
-7.21787	37.7	0.1622457
-7.21787	37.8	0.1585496
-7.21787	37.9	0.1414109
-7.21787	38	0.1386083
-7.21787	38.1	0.1265917
-7.21787	38.2	0.1256486
-7.21787	38.3	0.120484
-7.21787	38.4	0.1174884
-7.21787	38.5	0.1069877
-7.21787	38.6	0.105656
-7.21787	38.7	0.1044215
-7.21787	38.8	0.1021416
-7.21787	38.9	0.1007072
-7.21787	39	0.1012228
-7.21787	39.1	0.1018333
-7.21787	39.2	0.1017031
-7.21787	39.3	0.100106
-7.21787	39.4	0.09882828
-7.21787	39.5	0.0993231
-7.21787	39.6	0.0998605
-7.21787	39.7	0.1008709
-7.21787	39.8	0.1023766
-7.21787	39.9	0.104086
-7.21787	40	0.1063574
-7.21787	40.1	0.1092725
-7.21787	40.2	0.1127447
-7.21787	40.3	0.1177339
-7.21787	40.4	0.1228606
-7.21787	40.5	0.1279357
-7.21787	40.6	0.1337649
-7.21787	40.7	0.1406908
-7.21787	40.8	0.1473989
-7.21787	40.9	0.1517776
-7.21787	41	0.1543322
-7.21787	41.1	0.1560119
-7.21787	41.2	0.1562567
-7.21787	41.3	0.1548217
-7.21787	41.4	0.1514325
-7.21787	41.5	0.1456776
-7.21787	41.6	0.1370469
-7.21787	41.7	0.1276312
-7.21787	41.8	0.1172332
-7.21787	41.9	0.1063791
-7.21787	42	0.09683044
-7.21787	42.1	0.08898967
-7.21787	42.2	0.08250391
-7.11787	37	0.2310883
-7.11787	37.1	0.2115386
-7.11787	37.2	0.1959472
-7.11787	37.3	0.1812395
-7.11787	37.4	0.1651956
-7.11787	37.5	0.1479674
-7.11787	37.6	0.1626234
-7.11787	37.7	0.1449216
-7.11787	37.8	0.1425022
-7.11787	37.9	0.1383789
-7.11787	38	0.1255438
-7.11787	38.1	0.1189278
-7.11787	38.2	0.1178358
-7.11787	38.3	0.1160348
-7.11787	38.4	0.1064959
-7.11787	38.5	0.103723
-7.11787	38.6	0.1030189
-7.11787	38.7	0.1004186
-7.11787	38.8	0.09637054
-7.11787	38.9	0.09512125
-7.11787	39	0.09567714
-7.11787	39.1	0.09583712
-7.11787	39.2	0.09639498
-7.11787	39.3	0.09719422
-7.11787	39.4	0.09646668
-7.11787	39.5	0.09602049
-7.11787	39.6	0.09516792
-7.11787	39.7	0.0955149
-7.11787	39.8	0.09672546
-7.11787	39.9	0.09831751
-7.11787	40	0.1000984
-7.11787	40.1	0.1025772
-7.11787	40.2	0.1057619
-7.11787	40.3	0.109345
-7.11787	40.4	0.1138347
-7.11787	40.5	0.118153
-7.11787	40.6	0.122841
-7.11787	40.7	0.128391
-7.11787	40.8	0.1345627
-7.11787	40.9	0.140256
-7.11787	41	0.1449057
-7.11787	41.1	0.1481873
-7.11787	41.2	0.1499884
-7.11787	41.3	0.1501039
-7.11787	41.4	0.1479469
-7.11787	41.5	0.1425028
-7.11787	41.6	0.1341316
-7.11787	41.7	0.124885
-7.11787	41.8	0.1154753
-7.11787	41.9	0.1049789
-7.11787	42	0.0958726
-7.11787	42.1	0.08830203
-7.11787	42.2	0.08195993
-7.01787	36.9	0.2440402
-7.01787	37	0.2245293
-7.01787	37.1	0.2058753
-7.01787	37.2	0.1915391
-7.01787	37.3	0.1769824
-7.01787	37.4	0.1601271
-7.01787	37.5	0.1427038
-7.01787	37.6	0.1294648
-7.01787	37.7	0.1426508
-7.01787	37.8	0.1394215
-7.01787	37.9	0.1214601
-7.01787	38	0.1185419
-7.01787	38.1	0.1157716
-7.01787	38.2	0.1137173
-7.01787	38.3	0.1056605
-7.01787	38.4	0.1043934
-7.01787	38.5	0.1014226
-7.01787	38.6	0.09758898
-7.01787	38.7	0.09246279
-7.01787	38.8	0.09095505
-7.01787	38.9	0.09011413
-7.01787	39	0.09033646
-7.01787	39.1	0.09100499
-7.01787	39.2	0.09187599
-7.01787	39.3	0.09298353
-7.01787	39.4	0.09340727
-7.01787	39.5	0.09373397
-7.01787	39.6	0.09462874
-7.01787	39.7	0.09349649
-7.01787	39.8	0.0924961
-7.01787	39.9	0.09308028
-7.01787	40	0.09457376
-7.01787	40.1	0.09666526
-7.01787	40.2	0.09933725
-7.01787	40.3	0.1021783
-7.01787	40.4	0.1051654
-7.01787	40.5	0.1088566
-7.01787	40.6	0.1135323
-7.01787	40.7	0.1181525
-7.01787	40.8	0.1226834
-7.01787	40.9	0.1276127
-7.01787	41	0.1321086
-7.01787	41.1	0.1360422
-7.01787	41.2	0.1390014
-7.01787	41.3	0.140369
-7.01787	41.4	0.1395494
-7.01787	41.5	0.1360265
-7.01787	41.6	0.1294659
-7.01787	41.7	0.1208053
-7.01787	41.8	0.1121009
-7.01787	41.9	0.1025729
-7.01787	42	0.09418985
-7.01787	42.1	0.0868113
-7.01787	42.2	0.08095922
-6.91787	36.9	0.238282
-6.91787	37	0.2184187
-6.91787	37.1	0.2003024
-6.91787	37.2	0.1863419
-6.91787	37.3	0.1711589
-6.91787	37.4	0.1558105
-6.91787	37.5	0.138155
-6.91787	37.6	0.1249899
-6.91787	37.7	0.1152784
-6.91787	37.8	0.1069675
-6.91787	37.9	0.1182802
-6.91787	38	0.1157099
-6.91787	38.1	0.1123808
-6.91787	38.2	0.1049138
-6.91787	38.3	0.1032885
-6.91787	38.4	0.1020865
-6.91787	38.5	0.09485898
-6.91787	38.6	0.09003888
-6.91787	38.7	0.08912703
-6.91787	38.8	0.08752622
-6.91787	38.9	0.08637775
-6.91787	39	0.0862571
-6.91787	39.1	0.08609617
-6.91787	39.2	0.08693721
-6.91787	39.3	0.08792435
-6.91787	39.4	0.08918438
-6.91787	39.5	0.0904941
-6.91787	39.6	0.09152165
-6.91787	39.7	0.09192483
-6.91787	39.8	0.09090006
-6.91787	39.9	0.08927122
-6.91787	40	0.08961652
-6.91787	40.1	0.09144604
-6.91787	40.2	0.09338832
-6.91787	40.3	0.09576509
-6.91787	40.4	0.09819504
-6.91787	40.5	0.1007084
-6.91787	40.6	0.1044368
-6.91787	40.7	0.1085865
-6.91787	40.8	0.1127723
-6.91787	40.9	0.116763
-6.91787	41	0.1202039
-6.91787	41.1	0.1233914
-6.91787	41.2	0.1259898
-6.91787	41.3	0.1276968
-6.91787	41.4	0.1279673
-6.91787	41.5	0.126436
-6.91787	41.6	0.1221673
-6.91787	41.7	0.1150081
-6.91787	41.8	0.1072133
-6.91787	41.9	0.09913694
-6.91787	42	0.0917259
-6.91787	42.1	0.08498875
-6.91787	42.2	0.07943719
-6.81787	36.9	0.2295874
-6.81787	37	0.2109551
-6.81787	37.1	0.1938111
-6.81787	37.2	0.1788818
-6.81787	37.3	0.1661567
-6.81787	37.4	0.150891
-6.81787	37.5	0.1339494
-6.81787	37.6	0.1203916
-6.81787	37.7	0.110836
-6.81787	37.8	0.102636
-6.81787	37.9	0.09626015
-6.81787	38	0.1072439
-6.81787	38.1	0.1032604
-6.81787	38.2	0.1020373
-6.81787	38.3	0.1003371
-6.81787	38.4	0.09585395
-6.81787	38.5	0.08856737
-6.81787	38.6	0.08819356
-6.81787	38.7	0.0869068
-6.81787	38.8	0.08524586
-6.81787	38.9	0.0827167
-6.81787	39	0.08233866
-6.81787	39.1	0.08308523
-6.81787	39.2	0.08244565
-6.81787	39.3	0.08286764
-6.81787	39.4	0.08400449
-6.81787	39.5	0.08565366
-6.81787	39.6	0.08746614
-6.81787	39.7	0.08954015
-6.81787	39.8	0.08976484
-6.81787	39.9	0.08877585
-6.81787	40	0.08748259
-6.81787	40.1	0.08634145
-6.81787	40.2	0.0881521
-6.81787	40.3	0.08981792
-6.81787	40.4	0.09188718
-6.81787	40.5	0.09416997
-6.81787	40.6	0.09672293
-6.81787	40.7	0.09978095
-6.81787	40.8	0.1031376
-6.81787	40.9	0.1064357
-6.81787	41	0.1095597
-6.81787	41.1	0.1124566
-6.81787	41.2	0.1147415
-6.81787	41.3	0.1160109
-6.81787	41.4	0.1165515
-6.81787	41.5	0.1158392
-6.81787	41.6	0.1128172
-6.81787	41.7	0.1075849
-6.81787	41.8	0.1013646
-6.81787	41.9	0.09476252
-6.81787	42	0.08845356
-6.81787	42.1	0.08266203
-6.81787	42.2	0.07736561
-6.71787	36.9	0.2172789
-6.71787	37	0.200785
-6.71787	37.1	0.183932
-6.71787	37.2	0.1716108
-6.71787	37.3	0.1592448
-6.71787	37.4	0.144926
-6.71787	37.5	0.1281717
-6.71787	37.6	0.1166254
-6.71787	37.7	0.1065573
-6.71787	37.8	0.09894759
-6.71787	37.9	0.09177265
-6.71787	38	0.08723121
-6.71787	38.1	0.0839437
-6.71787	38.2	0.09737092
-6.71787	38.3	0.09353897
-6.71787	38.4	0.090249
-6.71787	38.5	0.08652388
-6.71787	38.6	0.08551545
-6.71787	38.7	0.08479317
-6.71787	38.8	0.08218163
-6.71787	38.9	0.07923761
-6.71787	39	0.07927468
-6.71787	39.1	0.07998089
-6.71787	39.2	0.07976247
-6.71787	39.3	0.07974569
-6.71787	39.4	0.07985657
-6.71787	39.5	0.08037536
-6.71787	39.6	0.08228038
-6.71787	39.7	0.08429728
-6.71787	39.8	0.08656009
-6.71787	39.9	0.08722933
-6.71787	40	0.08607014
-6.71787	40.1	0.08414548
-6.71787	40.2	0.08266947
-6.71787	40.3	0.08440073
-6.71787	40.4	0.08581411
-6.71787	40.5	0.0879044
-6.71787	40.6	0.09004964
-6.71787	40.7	0.09234857
-6.71787	40.8	0.09485458
-6.71787	40.9	0.09735195
-6.71787	41	0.09969173
-6.71787	41.1	0.1017831
-6.71787	41.2	0.1036004
-6.71787	41.3	0.1047516
-6.71787	41.4	0.1056223
-6.71787	41.5	0.1053865
-6.71787	41.6	0.1036471
-6.71787	41.7	0.09997579
-6.71787	41.8	0.09523981
-6.71787	41.9	0.0898686
-6.71787	42	0.08470093
-6.71787	42.1	0.07994542
-6.71787	42.2	0.07491358
-6.61787	36.9	0.201729
-6.61787	37	0.1874928
-6.61787	37.1	0.1738532
-6.61787	37.2	0.1623706
-6.61787	37.3	0.1503554
-6.61787	37.4	0.1369314
-6.61787	37.5	0.1232522
-6.61787	37.6	0.1122171
-6.61787	37.7	0.102409
-6.61787	37.8	0.09463368
-6.61787	37.9	0.08820553
-6.61787	38	0.08319248
-6.61787	38.1	0.07905197
-6.61787	38.2	0.07581439
-6.61787	38.3	0.08872215
-6.61787	38.4	0.08719714
-6.61787	38.5	0.08390011
-6.61787	38.6	0.08190676
-6.61787	38.7	0.08168388
-6.61787	38.8	0.08060095
-6.61787	38.9	0.07829225
-6.61787	39	0.07822092
-6.61787	39.1	0.07791607
-6.61787	39.2	0.07785486
-6.61787	39.3	0.07761487
-6.61787	39.4	0.07627773
-6.61787	39.5	0.07651708
-6.61787	39.6	0.07717576
-6.61787	39.7	0.07876254
-6.61787	39.8	0.08106861
-6.61787	39.9	0.08341474
-6.61787	40	0.08385783
-6.61787	40.1	0.08140691
-6.61787	40.2	0.079461
-6.61787	40.3	0.07879583
-6.61787	40.4	0.07981618
-6.61787	40.5	0.08172852
-6.61787	40.6	0.08384892
-6.61787	40.7	0.08588663
-6.61787	40.8	0.08785471
-6.61787	40.9	0.0895469
-6.61787	41	0.09135535
-6.61787	41.1	0.09296005
-6.61787	41.2	0.0942818
-6.61787	41.3	0.09515348
-6.61787	41.4	0.09607121
-6.61787	41.5	0.09621609
-6.61787	41.6	0.09501976
-6.61787	41.7	0.09244151
-6.61787	41.8	0.08902955
-6.61787	41.9	0.08497749
-6.61787	42	0.08076555
-6.61787	42.1	0.07643981
-6.61787	42.2	0.07210544
-6.51787	36.9	0.1899746
-6.51787	37	0.1770793
-6.51787	37.1	0.1654054
-6.51787	37.2	0.1540373
-6.51787	37.3	0.1436535
-6.51787	37.4	0.1312094
-6.51787	37.5	0.1189984
-6.51787	37.6	0.1079778
-6.51787	37.7	0.09822596
-6.51787	37.8	0.09075747
-6.51787	37.9	0.08487204
-6.51787	38	0.0797314
-6.51787	38.1	0.07495565
-6.51787	38.2	0.07259583
-6.51787	38.3	0.08614735
-6.51787	38.4	0.08436963
-6.51787	38.5	0.08149453
-6.51787	38.6	0.08030585
-6.51787	38.7	0.079151
-6.51787	38.8	0.07733023
-6.51787	38.9	0.07729144
-6.51787	39	0.0773331
-6.51787	39.1	0.07712853
-6.51787	39.2	0.07704767
-6.51787	39.3	0.07612546
-6.51787	39.4	0.0755828
-6.51787	39.5	0.07479731
-6.51787	39.6	0.07466875
-6.51787	39.7	0.07441809
-6.51787	39.8	0.07595205
-6.51787	39.9	0.07813273
-6.51787	40	0.08034071
-6.51787	40.1	0.07898092
-6.51787	40.2	0.07684835
-6.51787	40.3	0.07352624
-6.51787	40.4	0.07450619
-6.51787	40.5	0.07581313
-6.51787	40.6	0.07776295
-6.51787	40.7	0.0798201
-6.51787	40.8	0.08163728
-6.51787	40.9	0.0832345
-6.51787	41	0.08469441
-6.51787	41.1	0.08584218
-6.51787	41.2	0.08678064
-6.51787	41.3	0.08757401
-6.51787	41.4	0.088251
-6.51787	41.5	0.08841035
-6.51787	41.6	0.08751967
-6.51787	41.7	0.08571955
-6.51787	41.8	0.08329278
-6.51787	41.9	0.0802635
-6.51787	42	0.07671737
-6.51787	42.1	0.07298091
-6.51787	42.2	0.06937067
-6.41787	36.9	0.1805963
-6.41787	37	0.1688502
-6.41787	37.1	0.1572029
-6.41787	37.2	0.1469219
-6.41787	37.3	0.1363719
-6.41787	37.4	0.1261836
-6.41787	37.5	0.1153879
-6.41787	37.6	0.1039027
-6.41787	37.7	0.09555429
-6.41787	37.8	0.08870303
-6.41787	37.9	0.08170357
-6.41787	38	0.07617658
-6.41787	38.1	0.072503
-6.41787	38.2	0.07049356
-6.41787	38.3	0.06872755
-6.41787	38.4	0.08273166
-6.41787	38.5	0.07860358
-6.41787	38.6	0.07836403
-6.41787	38.7	0.07739895
-6.41787	38.8	0.07621313
-6.41787	38.9	0.07630694
-6.41787	39	0.07626129
-6.41787	39.1	0.07616262
-6.41787	39.2	0.07600332
-6.41787	39.3	0.07557129
-6.41787	39.4	0.07477611
-6.41787	39.5	0.07388424
-6.41787	39.6	0.07345039
-6.41787	39.7	0.07205026
-6.41787	39.8	0.07188436
-6.41787	39.9	0.07327048
-6.41787	40	0.0750837
-6.41787	40.1	0.07650665
-6.41787	40.2	0.07293516
-6.41787	40.3	0.07063007
-6.41787	40.4	0.07040901
-6.41787	40.5	0.07116517
-6.41787	40.6	0.07225818
-6.41787	40.7	0.07375725
-6.41787	40.8	0.07540398
-6.41787	40.9	0.07713552
-6.41787	41	0.07869507
-6.41787	41.1	0.07993865
-6.41787	41.2	0.08071219
-6.41787	41.3	0.08146574
-6.41787	41.4	0.08201079
-6.41787	41.5	0.08203427
-6.41787	41.6	0.08131771
-6.41787	41.7	0.08006173
-6.41787	41.8	0.07801719
-6.41787	41.9	0.07553142
-6.41787	42	0.07273562
-6.41787	42.1	0.06962471
-6.41787	42.2	0.06699762
-6.31787	36.9	0.1718505
-6.31787	37	0.1611278
-6.31787	37.1	0.1500334
-6.31787	37.2	0.1409002
-6.31787	37.3	0.1312704
-6.31787	37.4	0.1220143
-6.31787	37.5	0.1112404
-6.31787	37.6	0.1012593
-6.31787	37.7	0.09384074
-6.31787	37.8	0.08616634
-6.31787	37.9	0.07909355
-6.31787	38	0.07403307
-6.31787	38.1	0.07084008
-6.31787	38.2	0.06830613
-6.31787	38.3	0.06677428
-6.31787	38.4	0.06590734
-6.31787	38.5	0.06583456
-6.31787	38.6	0.06652102
-6.31787	38.7	0.07576709
-6.31787	38.8	0.07504807
-6.31787	38.9	0.07505424
-6.31787	39	0.07501742
-6.31787	39.1	0.07481986
-6.31787	39.2	0.07475812
-6.31787	39.3	0.07418057
-6.31787	39.4	0.0734113
-6.31787	39.5	0.07265865
-6.31787	39.6	0.07095674
-6.31787	39.7	0.06954167
-6.31787	39.8	0.06926782
-6.31787	39.9	0.06922279
-6.31787	40	0.07044563
-6.31787	40.1	0.071496
-6.31787	40.2	0.07051413
-6.31787	40.3	0.06838408
-6.31787	40.4	0.06822905
-6.31787	40.5	0.06844348
-6.31787	40.6	0.06870086
-6.31787	40.7	0.06935363
-6.31787	40.8	0.07035955
-6.31787	40.9	0.07151856
-6.31787	41	0.07271025
-6.31787	41.1	0.07370637
-6.31787	41.2	0.07446116
-6.31787	41.3	0.07535459
-6.31787	41.4	0.07596789
-6.31787	41.5	0.07601015
-6.31787	41.6	0.07535513
-6.31787	41.7	0.07436069
-6.31787	41.8	0.07298128
-6.31787	41.9	0.07108694
-6.31787	42	0.06888843
-6.31787	42.1	0.06659933
-6.31787	42.2	0.06471504
-6.21787	36.9	0.1636826
-6.21787	37	0.1532314
-6.21787	37.1	0.1421286
-6.21787	37.2	0.1342057
-6.21787	37.3	0.1264467
-6.21787	37.4	0.1188501
-6.21787	37.5	0.1073385
-6.21787	37.6	0.1001211
-6.21787	37.7	0.0919377
-6.21787	37.8	0.08381325
-6.21787	37.9	0.0769545
-6.21787	38	0.07282255
-6.21787	38.1	0.06896355
-6.21787	38.2	0.06649398
-6.21787	38.3	0.06476788
-6.21787	38.4	0.06413988
-6.21787	38.5	0.06408051
-6.21787	38.6	0.06459843
-6.21787	38.7	0.06558018
-6.21787	38.8	0.07369146
-6.21787	38.9	0.07386594
-6.21787	39	0.07382195
-6.21787	39.1	0.07357994
-6.21787	39.2	0.07343089
-6.21787	39.3	0.07298644
-6.21787	39.4	0.07224716
-6.21787	39.5	0.07144408
-6.21787	39.6	0.06969383
-6.21787	39.7	0.06779364
-6.21787	39.8	0.06726675
-6.21787	39.9	0.06676198
-6.21787	40	0.06685805
-6.21787	40.1	0.06737357
-6.21787	40.2	0.06752073
-6.21787	40.3	0.06633691
-6.21787	40.4	0.06621395
-6.21787	40.5	0.0663351
-6.21787	40.6	0.06650668
-6.21787	40.7	0.06673873
-6.21787	40.8	0.06705975
-6.21787	40.9	0.06756735
-6.21787	41	0.06814148
-6.21787	41.1	0.06873409
-6.21787	41.2	0.06943923
-6.21787	41.3	0.07014483
-6.21787	41.4	0.07054775
-6.21787	41.5	0.07046045
-6.21787	41.6	0.07004789
-6.21787	41.7	0.06929712
-6.21787	41.8	0.06826437
-6.21787	41.9	0.06695765
-6.21787	42	0.06546657
-6.21787	42.1	0.06391914
-6.21787	42.2	0.06348485
